# 3D point list with one line of data per point:
#   POINT3D_ID, X, Y, Z, R, G, B, ERROR, TRACK[] as (IMAGE_ID, POINT2D_IDX)
# Number of points: 344, mean track length: 5.5718386967552407
14694 -3.1406168760061646 2.2513368368123836 3.0462105853174761 191 221 211 1.4333355740771589 31 42 34 39 36 27
15000 -2.1813969827806563 2.8887018335358174 3.2173531714489765 15 95 36 2.7286504408828431 26 3019 36 2326
14697 -1.4192499200790643 3.2461052610116261 1.7324180087456107 209 189 154 2.0681903856813699 29 48 35 68 36 72 37 59 40 68 39 63 43 67 48 63 46 68 45 50 38 64 47 65
15004 -1.8444380590623983 2.6032175649443579 3.2604960897158435 0 58 14 0.26916281496936045 28 2172 36 2351
14701 -2.3367761005002969 2.1647107595185315 2.0915683747407416 2 33 17 1.537867023147556 35 92 36 94 37 84
14702 -2.0019251697828024 2.6101998575954486 2.1778578891106899 131 92 51 1.2877862777815086 35 85 36 100 37 81 47 83
18078 -2.5466425817500089 3.1672750007205694 1.7140756077910804 190 186 148 1.0470744244956396 45 1473 46 2604 47 1995 38 809 43 1992
14703 -2.3134323349702246 2.6973631315797459 2.4294549010124187 178 215 197 1.1359261078007248 34 118 35 80 36 102 39 81 37 78 40 76 43 71 48 83 46 81 45 83 38 94 47 73 33 159
14704 -15.775346068071496 20.806293345245155 -16.48099837154496 90 101 95 1.5253791738927234 33 84 36 113 34 109 39 96 37 76 45 74
15072 -2.9437880477698113 2.9503179736304399 2.1062909444674025 50 93 47 1.7992647000817803 35 2807 36 2713 39 2137 37 2058 45 2795 31 2142
14705 -10.174639943408637 9.1506625403872377 -4.6227337567761912 35 65 76 1.6463520637715123 33 264 35 177 36 132 31 196
14707 -2.621901130545834 2.9565063356380357 1.9624955757574731 162 205 188 0.58228102301318208 35 137 36 139 39 119 37 110 40 107 43 103 48 104 46 96 45 104 38 121 47 109
15076 -1.9258599057938219 3.5283540551148329 1.3337914897611629 109 89 65 1.6175338858358579 31 2214 36 2726 38 1825
14709 -1.5447146852062346 3.0338227030514329 2.6713066561410845 30 81 24 1.0545224432270621 35 75 36 148
15080 -2.0628956289354488 3.1892099612121894 1.5132528467994824 108 73 51 1.5701977393320294 35 2813 36 2742 39 2072 37 1009 40 2024 43 1397 46 2575
14713 -2.0714190021884069 2.5128105890963206 2.1182212134143983 180 152 115 1.9997856930164086 35 163 36 166
16106 -2.9723241633943043 2.0010671700172309 3.3825748026630928 2 93 17 1.7987676628928322 35 2101 40 1373 48 1845 46 1082 38 1049 43 1177
14715 -2.6302120762949532 2.2042947173644851 3.5049835641778149 16 111 43 0.021386675010959321 35 150 36 171
15599 -2.8043690070129075 3.1955257534474493 1.6074919131110366 16 69 25 1.0014562104340539 35 295 36 1923 39 168 37 176 40 176 43 149 48 135 46 157 38 189 47 137
14716 -1.5829087647144267 2.5214342858743879 2.5723829109088769 2 44 6 2.1791039459676043 32 87 36 202 39 203 46 440
15084 -4.1420428911159304 2.8164982150533997 2.1766286473199421 110 143 122 0.56848890231876892 34 1891 36 2764 31 1863 39 1971
14717 -2.7264482289246077 2.971543074788547 1.9970818430454971 181 195 198 1.1688283334373057 31 310 35 229 36 214 39 290 37 179 40 183 43 170 48 144 46 222 45 153 47 136 44 131
14718 -2.0800069250090547 2.6684046502464223 1.506036091490131 7 43 17 1.2886051700547392 35 350 39 116 37 173
14719 -16.394168276550861 16.007656895302617 -8.1530787595158998 0 0 0 1.004185974687142 29 184 35 189 28 214
15382 -3.5910853395923517 3.0791647965379481 1.7756751617673698 183 214 201 1.4686350158717565 36 1491 39 1958 48 811 46 2462
14721 -11.485726672279428 10.626531025519148 -5.2840277966533291 61 82 99 1.7435180290330055 29 225 32 200 36 237 28 253 37 166 39 187
15891 -2.899025272348962 2.3758308067199652 2.8745842971599305 142 192 172 2.0038209987547595 30 2485 31 2198 35 2399 36 2017 37 1514 26 2118 34 2571 31 1446 35 2413 36 2026 39 2647 48 2918 48 3140 46 2324 45 1021 45 2484 38 1791 38 1796 39 2638 47 1634 47 1638
14722 -13.723260835002371 15.260965113603028 -12.163291457983904 121 95 82 1.5943428005464861 29 290 36 240
14724 -1.2488480814794825 3.3327268665983549 2.8643785521035179 190 180 144 1.3620264290594164 35 208 36 248 39 211 37 201 40 206 43 184 48 164 46 188 45 180 38 219 47 173
15380 -2.0205442347283258 2.1141306543686516 1.555521236862327 169 131 95 0.72197800209415708 36 1031 39 1930
14873 -2.4886690585273668 1.9366559834204053 1.4379406977494329 40 82 98 1.1758573334472431 35 241 36 1452 39 1260
14728 -1.6639426345290198 2.5208466318580665 2.4653884089197038 95 95 60 1.3741861117274312 35 217 36 282 37 332 47 519
15899 -2.956025536038565 2.5484037723839781 2.6208533458107226 89 157 117 0.92659972615631614 34 2669 31 1742 35 2652 36 1662 39 1641 37 1861 27 2952 26 1659 28 1305 30 1632 33 973 28 882 40 1193 43 1728 48 1596 46 1575 45 1442 38 1944 47 1513
14730 -2.3392163824227397 2.1724597739815747 3.1706419164474324 3 74 11 1.5219659896491307 31 1566 35 259 36 290 48 301 44 252
14877 -4.123802248628496 2.847917292986875 2.0922843141126246 101 138 116 1.1026859505996887 31 824 35 1896 36 1482
14732 -2.5950524330098701 2.3795073389251207 3.5176077004890876 12 107 40 1.3590583523967255 35 261 36 293 39 210 37 267 40 271 43 262 48 211 46 245 45 227 47 214
15388 -3.7403551573159128 2.9425212498468563 2.0199591280769558 194 227 210 0.26105280936708275 35 2844 39 2008 48 2105 45 2345
14735 -9.5804349347286841 8.9584431941760947 -4.2519874729196614 24 59 70 1.0091895286149513 29 295 36 307 28 298 30 300 32 320
14736 -3.8545885287896144 2.9387129018931351 2.009846693812523 187 214 207 0.7923816653050989 35 291 36 314 39 278 37 231 40 243 43 219 48 196 46 214 45 253 38 287 47 155 44 232
14737 -3.1256640919290106 3.2744037221305229 1.5494663188773492 139 161 85 0.50212876251973615 31 350 35 348 36 344 39 335 37 363 40 334 43 317 48 284 46 329 45 288 38 330 47 236
15971 -2.9060602788872472 2.0014756327735284 3.4095050454177414 0 92 9 1.1014423569589711 31 1701 35 2139 40 203
14738 -2.9249371271467077 3.2729167533272303 1.5576749721419276 159 191 186 1.0980744926491168 35 507 36 348 39 331 37 371 33 426 46 392 45 429 47 281
17504 -3.0072388228074289 2.0993013707323764 3.4656654722960116 0 0 0 1.3691663946989756 36 2269 40 768 46 661
14739 -2.8725933400947055 3.2419052905279342 1.6090231185717472 154 176 199 0.48569959444850902 35 351 36 349 39 329 37 373 40 338 43 322 48 216 46 332 45 292 38 334 47 292
14949 -2.9253430324647831 2.3716285267785735 2.8641108110440561 152 222 186 0.30747931221870428 35 2319 36 1996 37 2162 40 2129 43 2320 39 2606 48 2730 46 2318 45 2474 38 1765 47 2808
14740 -1.9208167629434647 3.4885866557753915 1.2874137213124746 21 91 118 1.5122189470810217 34 677 35 520 36 358 37 236 48 297 46 389
15460 -3.0812367128123292 3.6813928180880224 4.1171342029018083 106 162 153 0.31597363749834967 36 2384 39 2544
14743 -2.4210007506346241 2.5523511926994238 3.0979835818465431 16 96 17 1.0349583852727855 26 229 33 386 39 2849
14953 -1.8604722864759218 2.4932235616016882 2.3481474156107338 151 153 114 0.51677010975840343 35 2447 36 2010
14744 -3.1374041309211798 2.1015975023071203 3.2489930056688952 3 54 11 1.7765238299263371 35 372 36 391 40 2308 48 2854 39 2755 46 2623 45 1759 45 2542 38 1280 38 1616
14745 -2.9691533455918302 2.3484559013474176 2.8847227704699399 187 221 207 0.89652349444355173 32 462 33 406 36 402 37 284 48 309 46 248 45 208 47 199 44 262 26 626
15979 -2.881847851007131 3.4314654726592653 1.2308638465014077 156 166 171 0.90039806687610691 39 277 40 241 43 216 48 235 46 211 37 407 45 251 38 283 47 234
14746 -2.9618560924911095 2.5061732600355366 2.6918019529279524 179 213 197 0.5909232036747929 34 633 35 413 36 415 39 353 40 366 43 350 48 326 46 278 45 347 38 363 47 220
14957 -2.8143007446574386 2.3602066596862907 2.8838330675655039 177 221 196 1.6815180637062805 31 1455 36 2045 39 2666 37 677 43 2526 48 2767 46 810 45 564 38 1807 47 692 47 2503 44 726
14748 -2.4456199340149487 2.8376982001567947 2.1184444169377956 173 171 133 1.7313800599281923 35 572 36 431 40 1023 43 931 39 1570 46 874 45 1159 47 1363
18031 -1.931786806618617 3.5793447732331014 1.2563649555059475 33 105 135 0.32648372513122587 45 1446 47 1112
14750 -2.9090931482651308 2.5893106730123079 2.5895606562293452 172 209 190 1.0928550418638778 31 622 34 630 36 439 39 462 37 444 43 362 48 330 46 355 45 344 44 390
15468 -1.862935943938048 2.3124093187625956 2.4786028276528538 174 162 134 0.38234637659237014 36 2053 39 2607 40 2921 43 2560
14751 -2.9459923195664048 2.5214018202290163 2.6649621320137968 177 213 199 0.50745430925124801 34 632 36 443 43 355 48 328 45 350
14897 -1.5701782022056461 3.161071340390309 1.817256398634149 0 36 0 1.0682238428455944 35 2403 36 1689 39 1617 37 2407 40 1777 43 2782 48 2389 45 2010 38 2433
14752 -1.9767985804108463 2.1856917644639102 2.4286734761961539 0 0 0 0.76687220354755792 35 894 31 633
15414 -3.0856203576995407 2.6749805513533209 2.4138813027365327 152 209 167 0.48319074975649112 36 2807 39 2183 46 2796 47 1382
14901 -2.1964222205199113 2.7872026393924592 2.2963665938836986 184 208 178 0.98577275171506196 35 2384 36 1714 39 1671 37 617 26 2379 40 1202 43 1729 48 2511 46 1566 45 612 38 441 47 1500
14756 -2.5760453319033561 2.3307610046392084 2.9661928416667673 182 217 205 1.2425608525332144 29 516 36 472 30 484 39 389 37 468 40 393 43 399 48 436 46 445 47 395
15060 -2.9910679964433271 2.6968096992831887 2.4161933635686901 58 123 87 1.06859814017579 31 2188 36 2654 39 2197 37 2111 40 2869 43 1466 48 1525 46 1406 45 1529 38 2448 40 2862 47 1395 47 2572 44 1133
14761 -2.2858583194488329 2.149306353831165 3.2382459528006864 0 76 12 1.9390918055971984 34 548 35 466 36 487
15420 -3.1507056113597764 2.6288600444614252 2.489683736234678 52 91 66 0.60430794514690933 31 2167 39 2196 37 2109 40 2871 43 2791 48 2380 46 1543 45 2014 38 2451 47 1398
14849 -0.56280676597848822 2.1858462740444562 2.4185165036256171 93 111 111 2.3066565960536707 32 2490 36 1301
14768 -2.8194019016433511 3.1822418365107437 1.6850929574937252 80 131 61 0.50915852250323912 35 648 36 571 39 495 37 552 40 607 43 583 48 580 46 591 45 650 38 408 47 458
15366 -2.468283339515204 2.0985120452127077 3.307402258260669 43 139 50 1.4439404561914122 31 882 39 1857 40 1523 37 2386 43 2308 38 1191
15364 -2.2484031398943731 2.1070565438941382 3.1160819955178298 64 161 48 1.0076524928171882 36 2277 39 1835 37 1605
14857 -2.1375652068604722 1.9543227241895798 3.4700621827744165 54 147 76 1.143422691242004 31 918 36 1344 37 1661 35 1122 48 1302
14776 -2.4175013119719972 2.1501646616928669 3.2661678803015985 0 77 8 1.4616423661578484 31 881 36 657 37 519 35 753 43 1351 45 386 46 540
14777 -1.6510700916629384 3.1040931462192125 1.8260169157667292 62 96 45 0.66206466007466769 34 723 36 674 39 749 37 626 40 716 43 662 48 806 46 880 45 1165 47 610
14778 -1.5281383808437854 2.9760874286238677 1.9424782592698466 49 90 34 1.9314440487888151 35 883 36 688 39 915 37 1116 40 419 43 425 48 2434 46 416 45 395 39 2330
14780 -1.9295922918847559 2.6954822419633784 2.428370123518834 195 185 156 1.6883324911957167 31 545 34 1797 36 707 39 586 37 1530 47 514
15372 -2.1324844137695482 1.7993739531819648 1.2027096073162002 165 146 129 1.8738791149983363 33 1423 39 1894 45 2162 46 2014 43 1801
16166 -2.376051989610529 1.8829000535056875 1.5263562654528526 245 214 170 0.021991590390736237 37 1881 48 1399
14929 -3.8316363335433921 2.8875761513879659 2.065587276444282 171 211 193 1.4077568776565161 31 1995 36 1892 39 1992 35 1942 37 1244 43 1915 46 2519 46 2524 45 2343 35 1944 38 1345 47 2308
14784 -2.9376812562139225 2.0708443796604543 3.3216373865698903 12 104 36 2.2160780435393286 34 1785 36 729 48 636 39 1019 45 927 47 1866
14786 -2.3785955356547031 2.1378474434940791 3.2428625107796649 35 121 50 1.3205770264403673 34 2255 35 752 36 746 39 401 40 830 43 1159 46 456 38 513
14933 -4.0782463692355302 2.6707373564236727 2.3442146207052605 116 148 135 0.96049315754505993 28 1798 33 1801 36 1911 30 1815 25 1668
14788 -2.6569154229476166 1.9458574512596543 3.519769311399676 43 142 70 1.4641990871372674 31 2443 36 750
16165 -2.2934344555111545 1.8800937960637272 1.4646165462315393 215 163 115 1.3395362520585277 34 1857 39 1909 40 1836
15444 -2.9375315190302067 2.4783558996392916 2.714248334912948 171 227 192 0.34065624210201317 36 2083 39 2391 37 1800 48 1645 46 1621 38 2288 47 1358 43 1760 40 2669
16174 -1.9822659872926593 2.1928710461980438 1.6652666603327553 22 56 66 0.46639864705013284 39 1415 40 1906 43 2868
14937 -3.5665247818352865 2.8209364374273402 2.1573771189919659 181 213 200 1.5328785217035712 34 1974 36 1931 37 1845 43 1979 38 1727
15454 -2.7490805880658522 2.476253297123713 2.7217840029210265 73 135 98 0.20520859111424494 36 1976 39 2472 37 2198 40 3012 48 2694 46 2266 45 2451 38 1792 47 2126
14793 -2.16360038553064 1.9028280260320036 1.2435164198831548 34 82 104 1.6279598360511083 35 1846 40 1090 43 1512 46 2015 31 1906 45 2163
15452 -2.6783771035778652 2.5321690494510301 2.6454487524327579 140 184 147 0.20792558362948851 36 2673 39 2447 43 2598 48 2664 46 2222
15009 -2.4753738526345201 3.8095562675050272 4.1504101287187565 19 114 145 1.5030947959502488 26 2215 36 2399
14804 -3.089395891489775 2.1221929698289221 3.2009727115650732 8 77 1 1.9003002685740042 35 1800 36 852 45 1023
16190 -2.0861411992543273 3.4308635743335762 1.4185069019564363 103 61 38 0.61600191520963654 36 1564 38 1739
15017 -1.5429431987705835 3.1535295399149157 1.8544955700688197 72 116 51 0.49452224679622392 31 1961 36 2438
14808 -3.1708835216889484 2.6164734873344271 2.5428479448705725 17 114 48 2.1961622295519425 33 1548 36 905 45 396
15021 -2.9086668310440342 2.4740538239092942 2.7426053022556229 190 232 212 0.43952482360878981 31 1794 36 2455 40 2184 48 2675 46 2237 45 2432 38 1532 47 1590
16189 -3.555631985699641 2.7871127936749747 2.2156856585391314 138 187 162 0.66220515269672597 36 1950 40 2021 43 2001
14815 -2.8284678025243832 3.0625103256851935 1.8145594704887822 20 65 32 1.9162287012668959 35 992 36 960 39 2058 47 2369
14961 -3.1261284196529822 2.1293920125084429 3.1658182463699034 81 167 9 0.41868665336562394 35 2441 36 2071 47 2559
14816 -3.6655185128403449 3.0113982781453905 1.9026493968292204 187 217 208 1.7146424407163581 36 997 39 1444 37 979 31 1350 40 1609 43 1571 38 1682 37 1933
14817 -3.6732945283697003 3.0337904380301066 1.878208350586424 120 160 144 0.67304661025442247 35 1029 36 1002 39 1183 37 976 40 1606 38 1335
14965 -2.0141916453743764 2.6378147579336719 2.5330538108633158 192 237 208 2.1250104987621383 31 2339 36 2099 37 2226 40 2189 43 2515 43 2518
14821 -4.2753781131502757 2.8835034704596492 2.1480495506282775 12 43 6 0.72127948011606025 32 1505 36 1015
15476 -2.6100878941956815 2.3849802242684865 2.8715855917532225 175 235 199 0.69089743112101087 35 2488 39 2692 37 2241 46 1737
14823 -2.1619187853230124 1.5792104474106012 0.9793501965197926 51 82 100 1.5263805132253228 33 1746 36 1049
14969 -2.4957420919869784 2.3750666102174436 2.8722281505974441 187 240 212 1.3186940111880914 30 2007 36 2130 40 1303 47 1856
14825 -2.1974642472524155 1.9606982385701111 3.4864388030044422 55 153 80 1.3837520337129914 31 1617 36 1085 39 1088 37 894 43 2416
15995 -3.3906732760904177 2.9674278542996655 3.3514193704237987 3 92 19 1.4145661143623323 39 604 43 532 46 454 45 465
14826 -2.5592813629318201 1.9379995854397198 3.5284296478519104 41 141 54 1.6773392558953333 31 899 36 1093 47 969
14973 -2.3724498637630944 2.3978597756234823 2.8521388971602151 175 231 199 1.4930782236278302 31 2003 36 2155 39 1788 37 1686
14828 -2.4125771834245868 2.1352015435079066 3.2499933733413569 60 147 75 1.7557515303907634 31 555 36 1115 39 1848 47 1761
14913 -2.3461760912836387 2.2335341646950413 1.3177642493543149 234 192 154 2.1053984118633933 35 1865 36 1806
14832 -1.8388665293812094 2.3798293222835811 2.3887120062590483 1 7 0 2.232919384702853 35 593 36 1180 37 1145 43 1765 46 2419 48 560
15430 -2.3908362639600025 2.0700516750773694 3.3884350400559518 75 169 91 2.1393204905834033 31 1594 40 1435 48 1068
15939 -4.2681286832303975 2.6689038827430025 0.47048053094879833 83 112 128 2.8079614485299684 39 56 40 15
14834 -9.8479159268448111 6.5970900736357123 -3.4735910383162389 70 57 50 0.57971988867430313 34 1818 36 1197
14917 -4.1283235450350748 3.0009849771416421 1.9108179166496255 93 142 118 0.87801476577014126 31 1937 36 1828 38 2447
14836 -3.1260307104723148 2.1599048575172621 3.1823537227381062 39 127 6 0.45629442253876223 31 1459 36 1206 37 1564
14837 -1.8217702210040416 2.3966384978357818 2.5084360945917705 205 227 204 0.49352827621140249 35 1207 36 1209 39 2668 37 680
15428 -3.2355122184911354 2.4678883058341703 2.7087694604692856 143 221 173 0.40105249553502104 36 2819 39 2260 37 2420 43 2724 48 2497 46 2070 38 2399
14839 -2.9556514495532231 2.080949843457002 3.2899579756249033 0 66 15 2.0526199701148933 31 1987 36 1253 39 1015 37 2348 47 1731 35 2071
14921 -3.8040343557994443 2.5639315480537248 2.546093554101529 172 221 191 0.54308884020813764 35 2041 36 1861 39 2117 40 2095 43 1891
14841 -2.8970626790113134 2.0519407428696885 3.3609112041960096 16 103 36 0.88659648009280512 31 1525 36 1271 37 841
15947 -4.5059242790372824 9.4553151042940886 -7.9582015136035915 5 5 5 0.15377055782895024 37 44 40 46
14842 -2.8389279499848015 2.0998160083218576 3.3284785876718241 23 119 41 0.58740766532796351 34 663 36 1274 39 2832
15436 -3.348663776623523 2.3064326309685783 2.8716493184554461 174 213 194 0.67095269000283841 36 2571 48 912 39 2308 38 1496
14847 -2.4248388158918495 2.0932579357670735 3.2570752579797184 40 125 62 1.4695768953528188 31 2064 37 2372 40 2461 38 1031
14850 -2.3698934127545739 2.1973299717021533 3.2920878553254882 77 173 76 0.79658966586892876 35 1154 36 1312 37 1623
15794 -1.6276668414674647 2.8497831905994859 2.2253783842949382 150 142 103 1.5925142284825908 34 2872 37 2169 45 1268 47 1400
15802 -2.0127182566270703 2.5909898777897395 2.5880220659020514 176 231 194 0.42157598313790157 39 2694 37 2245
14859 -2.1696245156869942 2.4763751544071346 3.4387176824979813 34 119 59 2.0988479279887708 35 1370 36 1348 39 1272 40 1461 45 972 45 1808
15746 -2.3972317042806655 2.5264235123717937 2.4379827957995386 13 57 20 1.8932406859685338 32 2621 46 2075
14867 -3.1796468828550681 2.7192902641361698 2.3795728136426257 179 222 203 0.77508793140675225 35 1648 36 1405 48 2321
16263 -3.2961372330082073 2.9560667327490107 3.3067404675192287 16 103 34 1.4059964886261778 39 2834 40 2410
14868 -3.0623485511518114 2.5801451372993371 2.5606714738747702 28 113 46 0.20334728413139699 35 2724 36 1417 47 1438
16271 -1.4925568719126479 2.9984949062379873 2.766338985477284 32 82 45 0.75147698080574721 39 1902 40 2468 46 2975 45 930 48 2224 38 2046
14876 -4.1564159917198387 2.965695443898122 1.984576284589423 93 138 107 1.3400850512028712 31 1939 39 1402 36 1472 33 1964 37 1907 43 1555
14880 -2.1548076060571786 2.8354281137018105 1.4471445092414095 112 96 62 1.4685396364075334 35 1011 36 1524 39 1975
16209 -2.2199747933684431 2.7361957295847419 2.5113677285269778 15 62 13 0.71339646973033011 37 2188 40 2146
15552 -2.827394527252534 1.9940321898896551 3.452096007611773 18 119 21 1.3445830064028288 31 2402 39 1042 47 1773
14890 -3.039555768556049 2.6523120878119641 2.4587783787422701 59 125 78 0.2306356612659658 35 2751 36 1619 37 2115 43 1675 46 2834 47 1401
16223 -2.0046262717499213 2.554601133114573 2.584292262353356 181 238 194 1.182383685362473 36 2789 40 2205 38 1832
16217 -1.9511768509254024 2.6296832542192354 2.4914488412257749 37 124 36 1.3085825319042226 36 2090 40 2180 43 2500 46 1689
15560 -2.3675720467409591 2.8156512937838807 2.3552192260422853 9 54 13 0.50801011102508564 34 2449 39 1745
14894 -3.1662323371593475 2.473559791173547 2.7181221530848574 17 110 36 0.26260292376073718 34 2700 36 1653 48 1599
14895 -3.1592326379108484 2.39987094559998 2.7797421570919632 25 115 56 0.84291520540266129 35 2667 36 1667 37 1425
15786 -2.4822123170228987 2.804261792124231 2.1309227904657932 2 52 15 1.8085985667084017 39 1566 37 2087 40 2900 43 2833 46 2748 46 2752
14907 -1.9727717920070358 0.55872781167521413 1.2372804017269383 143 147 151 1.9408640440710125 26 2267 36 1779
16297 -3.3328613809762428 2.356337945010889 2.8831130671731349 52 136 87 0.71405624622253272 39 2357 40 2690 48 2637 46 2213 45 1659 47 2067
15576 -1.1703184314250612 3.2699884773316588 2.9392934190269084 187 167 135 1.6175786800897638 39 19 37 26 36 25 47 25
14910 -2.1912377212745553 1.5866584644304846 0.96114709385207098 169 145 118 2.0750903783544548 33 1415 36 1784 47 2201
15858 -2.8744045304715105 2.3999044872888864 2.8260502420386433 82 151 115 2.1609920790211281 26 1457 28 1582 30 1663 29 1367 31 2190 35 2388 36 1999 37 496 30 2494 32 2651 34 2588 35 2143 36 1983 48 498 48 2430 48 2723 46 506 45 561 46 2311 46 2295 38 620 38 2092 38 2227 47 516 47 1622 47 2172
16375 -2.4718566386966114 2.4147562975445092 2.813005069945052 126 190 157 1.5657651567561415 35 2501 36 2104 40 2954 26 2750 32 2013 37 2247 43 2244 39 2964 48 2791 46 2860 46 2863 38 1852 47 2526 47 2529
14916 -4.104507444432083 3.1167019087299246 1.7669473474142217 103 149 126 0.02002024399224062 31 1935 36 1822
16369 -2.4537939684214098 2.101387398172013 3.3368662566949947 15 131 25 1.572495099030534 28 1955 32 2203 33 1215 34 1266 31 889 40 2486 35 2217 39 1232 46 3365 38 2086
14918 -2.0384567648628713 2.2824538364797911 1.4800294296447518 42 74 88 2.3226289239915365 36 1832 39 1931 37 1897 47 2222
16383 -2.1806646598794539 2.4261035139000411 2.7752804925091827 184 216 205 1.532042763263207 39 6 40 7 43 7 45 5
16377 -2.5411333320506695 2.7900460493378105 2.272940891928847 160 210 193 1.4642502527195986 36 425 39 375 40 428 37 598 31 1277 39 633 36 892 36 652 40 836 35 929 43 444 43 800 48 473 46 897 45 619 47 617
14926 -3.9491352355828244 2.7919692093861896 2.1463826628201494 194 222 210 0.81399365174299509 35 2841 36 1879 37 1241
15810 -1.9139264837343974 2.5606275273024397 2.6237279455286902 192 222 215 2.0233488869401328 31 2576 35 2124 37 2292 46 2868 46 2874 45 1339
16164 -2.5353591025791493 2.1290323634816763 1.3398699149160869 186 188 183 2.043006812782945 37 715 40 1830 48 1980 46 2371
16329 -2.2539701114259492 2.5329380711036653 2.1778657609360637 169 157 123 1.8472497747083558 39 1571 40 2883 43 1665 48 2336 40 2884 46 2758 45 2836
14942 -3.7013382152103187 2.6886833262163807 2.3658252095468533 190 222 211 0.94920094882396755 35 2013 36 1964 37 1016
18323 -1.4348836503781017 3.6410716315666813 2.0952688684326186 6 87 10 2.0738927593202603 15 84 14 77 13 66
14944 -2.8831783796639363 2.4374167408015861 2.7925366968890866 147 214 171 1.6970927807647778 31 2343 36 1974 39 2583 36 1977 37 1844 37 1847 40 2641 40 2651 43 2542 43 2546 48 2021 48 2890 46 2277 46 2286 38 2542 47 1613 47 2137 44 1417
15762 -2.1667443955651495 1.9377979759122699 1.1889733887733474 134 117 107 2.0144176516173586 39 1364 37 1878 48 1315 45 1041
15770 -2.9551264316948558 3.3466753016555755 1.4262004370692019 121 137 85 1.3574717071584339 35 1970 36 1878 39 2573 37 1921 40 1911 48 2050 48 2695 46 2460 45 2250 47 2260
14955 -2.2018903476321254 2.6941249525651054 2.454210530092066 57 124 22 0.85334300834075671 35 1451 36 2023 37 1884 40 2623 39 2483 43 2584 48 2669 46 1646 45 1660 38 1542 47 1405
16287 -3.4479411087499816 2.1869430285880336 3.0754153232071579 0 72 0 1.2641083089303256 35 692 39 2986 40 2642 38 2210 39 2465
14956 -2.8006387439569034 2.3687965710659773 2.8653658142021916 125 205 150 0.42217248690989423 35 2431 36 2036 37 1531 48 1730 46 3270 47 2495
17822 -3.0095071629231374 2.1384276841490455 3.3906697009451059 33 121 40 0.86716548736991717 46 1084 38 2015 43 1068 47 206
14960 -1.3857358949708678 3.14197342940408 2.0112617153225298 0 0 0 1.1312613337767212 31 100 35 1825 33 35
14962 -2.5384035214990992 2.4155884850592564 2.8096062211138872 184 232 210 1.2941586043383568 35 1805 36 2075 43 2577 31 1476 48 1743 45 1325 38 1086
15842 -2.122206267611769 2.4674615927634496 2.7312271642117856 53 145 55 0.69065453937822252 35 2094 37 2547 40 2273
14963 -2.6555552721061146 2.3419022844962445 2.8872571413700467 76 129 106 0.94768625131880957 31 2272 36 2078 39 2681 48 2789 38 708
16353 -3.277004488113735 2.6653764891342031 2.4758993484608758 138 205 168 1.627146259324318 26 2540 33 2677 31 2139 35 1652 40 1733 26 3102 32 1801 43 2808 46 2793
14970 -2.4478596024904768 2.3437556357941598 2.8749026302363725 9 105 33 2.0520545085050861 32 2039 36 2134
15850 -3.1368725104005777 2.5381617608358216 2.6157939027562298 178 229 210 0.93258567972539852 23 626 26 476 32 412 31 366 36 262 39 226 37 272 32 2780 33 2595 34 2724 31 2357 35 2727 36 2618 39 2239 40 263 40 2829 43 233 43 2749 48 252 48 1559 46 233 46 1546 45 1628 38 232 38 2418 47 160 47 1456 44 217
14971 -2.5557776016136668 2.3272759781086996 2.9278031954126207 146 220 171 0.57185187247684477 35 2513 36 2138 37 2283 48 2818 46 2898 47 2554
16367 -2.7769626094383746 2.4340389949077927 2.7931970665925037 83 151 116 1.9362101098523874 33 1656 31 1125 39 2609 37 2331 40 2123 26 2438 28 2249 30 2029 32 2616 29 1904 33 1962 34 2283 35 2415 36 1744 37 1507 43 2265 48 1715 48 2721 48 2733 43 2929 46 1688 46 2308 46 2317 45 1695 38 1100 47 1627 47 2167 47 2520
14972 -1.8458562223087656 2.6556186115856462 2.5133970352278445 200 230 220 0.89206792538226487 35 2098 36 2145 39 2702 43 2540 48 1738 46 1710 45 1717 47 1657
16361 -3.0924748449842361 3.2632996638374161 1.5701581111243705 138 162 95 1.8371765302378404 35 637 39 1186 40 1611 36 2000 39 1978 37 1238 31 1013 43 1008 48 1205 46 1281 45 645 45 1083 36 799 38 918 47 452 47 1082
14974 -2.110053147443133 2.4746132338739799 2.7068736217129286 186 238 197 1.704308451096562 35 2090 36 2157 40 2260 43 2059 39 2731 48 3055 38 1866
16150 -3.9628524699170242 2.6180527554366 2.4473329216757023 174 199 193 0.65548239273800224 35 1567 36 1535 40 1661
14977 -2.3938934506167948 2.3503744948330048 2.9351519962355872 171 236 199 1.5327126735701626 31 1693 36 2197 37 2326 36 2195 40 2315 38 1948
15635 -3.0378234316033246 2.7026177717364783 2.3722812870466874 18 128 38 0.16731014737937158 29 1181 39 536 48 364
16148 -4.1403217995126989 2.8461053037947521 2.1311214469365423 100 140 116 1.4258136373581081 32 1851 40 1604
15643 -1.351682601652529 2.6947192658964205 2.2113608994376475 249 235 226 1.0290445467706417 36 1162 39 827 37 676 40 949 43 858 45 671 46 977 48 938 38 833 47 674
14986 -2.2514630130187618 2.3386772950885186 2.947867662305661 181 233 201 0.82201074659790063 34 2204 36 2233 39 2803 37 1597 40 2359 46 1058 47 1725
14991 -2.7390460571533 2.586419634833609 2.5777946745656375 135 206 160 0.41835986330672803 34 2614 36 2246 37 1778 48 2571 46 2134 45 1238 47 2896
16230 -2.924227289281228 2.4567183543572164 2.7526038782374824 43 114 69 0.573747292711978 36 2456 39 2433 40 2222 43 2591 48 1299 46 2239 45 2423 47 1496
14993 -2.6598426588097279 2.177727244185514 3.2587866106480576 117 208 89 0.41908188070423047 35 1275 36 2257 47 726
14994 -2.5509603555568066 2.1105921636570146 3.2296350774688376 51 144 39 1.8385624907462694 31 864 36 2264 39 1025 37 844 35 1276 40 1387 43 1320 48 1030 46 644 47 577
18272 -3.7656392255666229 2.6461451793513513 2.4544095444646459 158 205 189 0.42769649855905262 29 610 44 1299 28 609
14995 -2.3101344549868061 2.3017404376072426 3.0806374688941029 21 109 22 0.67463994979121911 35 2193 36 2266 37 2357
16238 -2.501629477298092 2.3993995682874285 2.8881077262835939 6 100 27 1.424176859529527 39 2735 46 2893 38 2506
15001 -2.4732059269444964 1.9192143581714749 3.5679821333334774 58 139 96 1.4717512707918989 35 2862 40 2539 43 1394 39 1073 46 1903 45 967 37 2419
15002 -1.309469373494619 3.4575909261007136 2.8364557843305254 4 22 10 0.79971942137030227 33 2451 36 2342 39 1258 37 2410
17775 -2.6865074914526983 1.9944633334868329 3.8377138827585222 55 120 88 2.6104281833142529 46 3141 38 1237
15006 -1.9827534054386502 2.3446095433363605 3.3775147510724053 0 66 18 1.5642230829159585 35 2311 36 2364 37 1705
16236 -2.07157939369363 2.4883308823155064 2.6958202409523588 186 241 194 1.374338991182207 37 2282 40 2262 36 2167 38 1875
15007 -2.9042386441002184 3.2091934218179294 3.8581655059579916 30 96 68 1.747728292004173 35 2320 36 2372 39 1276 37 1665 40 1506 43 1097 48 1107 46 1176 45 985
15010 -2.1408597203000097 2.5181998907387375 5.0374311524557021 12 132 184 0.64297518821284183 35 2382 36 2412
15675 -2.7931128414710056 3.1488551842100123 1.7131377250455859 0 53 16 1.6367028922348024 35 2050 37 919 40 1085 43 1955 48 3091 39 2046 38 905
15018 -2.2408781551083519 1.7563446678016934 1.3399653985453699 190 157 122 1.997896174465587 32 1820 36 2443 39 486
16188 -2.6453304999233156 3.1810189819641734 1.693249370033109 61 113 40 1.3755797771199354 39 2055 40 2013 43 1972 48 2163 46 2587 45 2411 38 1732 47 2352 47 2358
15023 -2.7010810301339219 2.5750506449260868 2.6203931036530483 67 121 83 0.78484845115832969 35 2298 36 2463 39 2423 37 1815 40 2567 43 2618 48 2633 46 2198 45 2123 38 2265 47 2068 44 1532
15025 -2.7494192908173245 2.5362823236937571 2.6572985767779116 122 143 135 0.8234616054111723 31 2368 36 2469 39 2428 37 1822 37 2512 43 2608 48 2648 45 2778 47 1587
15619 -2.7251451550553569 3.1877224444145815 1.6695455501375147 17 77 17 0.79597026776813151 36 464 39 420 37 415 40 608 43 408 48 383 46 388 45 423 38 453 47 411
15026 -2.8386125896984806 2.4759789800238519 2.7212950469356705 158 222 178 0.35514546803095454 35 2539 36 2471 39 2444 40 2429 48 2677 45 2429 38 2244 47 1589
15027 -3.0482825064122148 2.4543159470459055 2.7591035864666433 91 151 117 1.0976081929523636 35 2614 36 2476 37 1793 48 2624 46 2193 45 2744 48 2636 38 2291 47 2958
16142 -2.1518203023601044 2.0452670156730881 1.3980111650909781 135 112 98 1.2860026462896803 39 1913 40 1559 43 1523
15033 -2.4148386531898347 2.7483123640440303 2.342285927157381 1 10 0 0.77373205181213878 35 2559 36 2499 39 1643 43 1719 48 1572 46 1554 45 1200 38 1467 47 1475
15034 -2.8119600557988105 2.4793753031380699 2.7197234555302825 170 231 198 0.52184386487636425 35 2281 36 2500 37 1832 43 2583 48 2685 46 2245 45 2184 38 2239 47 2104
16140 -2.2899685361688995 1.8600769515188864 1.448300161412055 241 210 179 0.12465109123684882 37 1723 40 1555
15039 -3.2875566069259907 2.3749813617224755 2.8469339813597379 77 142 118 0.35018731786557139 35 2681 36 2539 37 1764 40 1511 39 2346 43 2642 48 2618 46 2187 45 2119 38 2315 47 1427
15042 -3.2272422132753125 2.4153630072418073 2.7936454151434544 60 121 88 0.484804811365394 35 2684 36 2551 39 2314 37 1744 40 2733 43 2665 48 2589 46 2155 45 2102 38 2342 47 2916
16212 -2.9570844501200413 2.332273985464667 2.9201434437146494 155 226 182 0.35379041240048498 35 2402 40 2163 48 2751 39 1738 46 3236 45 2492 38 1800 47 1851
15047 -2.9248861827841641 2.6221543669860967 2.5169447829050098 102 157 126 0.20435097214869111 31 1724 36 2599 47 2791 38 2414
16222 -2.5331642439073807 2.4666826089200367 2.780726703531605 168 229 196 2.1940366065073227 39 2679 40 2197 48 501 47 368 47 2513
15049 -2.4326285548153241 2.8514504350289878 2.2021038347436144 86 141 123 0.46727142583755377 35 2651 36 2601 39 2224 37 1416 40 2849 48 2391 46 2832 45 1581 38 2439 47 2585
16220 -2.0180511695493504 2.5891852566927804 2.5572567406608622 195 239 206 1.1540755900706976 36 2108 40 2192 37 2229 46 2951
15405 -2.4709493208884084 2.7332447014344692 2.055126101861898 162 165 140 1.8875545746947653 35 2784 39 2142 40 1713 43 1846 48 2263 46 2687 45 1521 45 2794
15059 -3.0372469747654232 2.6533736556079894 2.4680611929221055 155 211 164 0.38144947660455891 35 2749 36 2646 37 2121 40 2858 39 2204 48 1534 46 1451 45 1586 38 2442 47 2633
16292 -2.6988233529765271 2.5986013336454215 2.5953234906970351 167 221 190 0.78437423481395685 36 2809 39 2408 40 2664 48 2616 46 2176 45 1636 38 2284 47 2949
15063 -3.2595022204594399 2.6877458035556949 2.5067559510731092 169 226 193 0.039371865568837053 30 2683 36 2669
15787 -3.0625841112388841 2.6442423093828582 2.475085755025269 89 141 116 0.31105593898299155 35 2753 39 1582 37 2117 43 2783 48 2395 46 2838 45 2021 38 2444 47 2616
15066 -2.9571519326612852 2.7805911536094778 2.2882753680318588 156 211 182 0.26623928909711952 31 2165 36 2686 39 2162 40 2920 48 1499 46 2754 45 2833 38 2472 47 1361
15070 -2.681036104417251 3.0041720539371881 1.9735094426477138 169 212 191 2.1476916692517842 31 1059 35 2798 36 2709 39 858 40 689 43 955 48 2244 48 2252 46 1355 38 829 47 1143 47 2039 44 687
15421 -3.0930942201151943 2.6339219706783084 2.4896415472538944 91 139 117 0.23811803871712389 36 2650 39 2203 40 3024 48 2396 46 2841 45 2023 38 2443 47 2618
15071 -1.8707487277776003 3.9844496415799298 1.1125540831023375 0 0 0 1.4794846024624904 34 2644 35 1660
16246 -3.1339085775627384 2.1596506529910657 3.2241593720631396 94 176 72 1.1421582088119655 39 2743 40 2302 43 1271 48 1817 46 1054 45 1758 38 1928
15073 -1.8263106338141564 3.4930827188032034 1.3305865570409015 141 122 100 1.3890293249862866 31 2565 36 2716 43 1987 48 2702
15731 -2.3632454433109027 1.9222793960461129 3.510946037582678 15 117 42 0.56151679747676519 31 2484 37 1646 48 687
15074 -1.7817675863125482 3.428690317231275 1.348272340468867 74 84 85 1.9034898856463065 31 2564 36 2717 37 2034 46 2592 38 1748
18282 -2.7196494120849888 2.504909444944952 2.6794353752249673 147 178 154 1.5689483418437336 17 3277 19 4194 18 4324 22 1938 23 1943 25 1902 27 1948 29 911 44 727 34 2573 31 1929 35 2398 36 2693 28 1598 30 1672 32 1703 33 1648 34 1730 31 1437 35 1764 37 1481 37 1830 40 1241 40 2976 39 2451 43 1195 48 1686 48 2674 46 1661 46 2234 45 2426 38 2242 47 2095
15077 -3.4414461759868962 2.659712543645814 2.3966808395407755 134 204 150 1.201724386832036 34 1970 36 2728 45 2801
16254 -3.7840993621447963 2.5602218288242824 2.5639870960061053 109 158 139 0.54200366047361459 36 2750 40 2373 43 1815
15081 -2.999153958978316 2.8724508641352609 2.0801586310313946 137 161 151 1.9995169115238529 35 1956 36 2745 37 2045 40 1695 36 2739 43 440 47 2403
15739 -2.6099247348797063 2.1574619231551111 3.165274699486297 62 157 63 2.3467207036446132 35 837 36 1128 37 1700 40 2378 43 1298 48 2883 31 2358 46 2959 47 905
15082 -3.7992357731579949 2.5347630096236498 2.5844598748410981 170 218 195 0.52757512289457631 35 2055 36 2747 39 2130 40 2349
16252 -3.0081686175566884 2.0476534476796338 3.3106664655415368 53 140 95 1.3047086462274677 31 806 40 2367 48 1024 46 1074 46 2958
15087 -3.6903945391950486 2.7131476947502975 2.3437532200429518 192 227 212 0.95654186018662613 31 2043 36 2771 39 2387 37 1013 40 1676 43 1624 47 2401
16196 -3.4326872000525004 2.8105166477272867 2.2249316590085693 174 219 196 1.8775880444042159 36 2111 45 499 37 775 47 2993 38 563
15095 -2.6018943270725838 1.9676721168725069 3.5296126943568007 51 146 79 0.64799593167132208 31 896 37 2105
16206 -2.7924651519032921 2.4132165619259327 2.8024015304179697 160 228 184 0.2956535821334077 39 2610 40 2128 48 2722 46 2305 45 2469 47 2168
15097 -1.6607909464113584 3.1363893741362006 1.7763595864389368 104 147 93 2.6045241128040066 26 2815 32 1754 30 2044 28 1900 33 2036 34 2538 35 2884 31 2218 36 2590 21 2082 22 2064 23 1441 25 2536 27 2030 26 2816 33 2040 28 1907 32 2038 34 2543 31 1452 35 1745 36 1654 37 1685 48 2334 45 2839 47 2456
16204 -2.9605918261830961 2.4496315595606468 2.7593220007842505 171 222 193 0.41143249613242749 39 2421 40 2114 48 2667 38 2259
15103 -3.6912810422041087 3.1608075364161312 1.6725465341150008 173 218 197 1.1570832151068797 32 1508 33 1442 31 1681 35 1515 36 562 28 862 30 584 32 805 29 767 33 854 34 587 35 535 37 710 39 671 40 646 43 734 48 573 38 935 47 594
15538 -8.308713366178397 7.0976119542745808 -2.2897263105234016 53 93 120 0.60353646478165612 36 232 40 133
16055 -2.8291773475633137 2.5658079367308071 3.2604444631001965 23 91 63 1.2084874373311223 39 2851 40 892 46 1832 45 1900 38 1044
15108 -3.3447468674953842 2.6524272834880116 2.4492022776130189 58 144 75 1.4076910706197823 23 2456 27 1797 26 2512 29 2113 34 2836 31 1211 35 2820 36 922 21 3185 23 3164 27 1802 26 2517 30 2720 32 2224 35 2095 31 1215 39 864 37 1363 40 1040 40 1889 43 1657 48 799 48 1494 46 1397 38 872 47 1162
16049 -3.4234209671337847 2.9214528673100357 3.522971783424758 51 150 60 2.0386940205913811 39 704 40 873 38 747
15110 -3.6860516609687024 2.6461620458340422 2.4214087590720443 162 207 190 1.6192636512488803 28 2539 32 1969 33 2177 30 2028 34 2025 30 1920 31 2060 36 2077 33 1913 35 2029 39 1527 37 2036 40 2073 43 2221 48 1462 46 1356 45 1517 38 1387 38 1840 47 2037
15114 -1.9252212122172847 2.6587036832672242 2.5699487975994519 165 157 137 1.4616833904162354 36 14 30 18 32 17 29 991 33 16 34 15 31 23 39 12 37 16 37 1562 40 14 43 11 46 14
15546 -2.8641897255351494 2.3551557222869857 3.5734746465642222 91 194 88 1.1877237975545676 35 763 37 522 39 617 38 763
15115 -1.6307881964967312 3.199751150591982 1.6403734342758165 45 53 25 1.3223000574742427 34 2228 36 901 31 2501 31 1807 35 2626 40 436
16057 -2.9036130430605263 2.0415717304425387 3.3512880783951076 0 77 0 1.6094801283051743 31 444 40 898 37 2355
15118 -2.4455867621367133 1.4844933698503719 3.4186348999212881 0 0 0 1.2411800053902771 31 661 35 56
15119 -2.268010209887962 2.687237872066484 2.2986287743521236 4 24 13 1.9304847896133512 35 61 36 71 39 72 37 61 40 67 43 52 48 61 46 52 45 53 47 43
15120 -18.208454577255157 18.535954731441926 -10.290992989741508 122 121 126 1.7636253140997389 33 115 36 134
15122 -9.6325606773302273 8.6921811719492705 -3.6207122877084141 43 80 106 0.55677128774708451 33 262 36 234
15490 -1.2057779856727018 2.9352088626464057 2.3890695987476631 178 148 122 2.5585323221769265 29 1045 39 2805
15123 -9.602130619926788 6.2088815859607918 -2.9809187901570295 127 91 77 0.19574440033953197 32 1785 36 506
16007 -1.4809706246724641 3.2142836486461319 1.8280841884272148 115 109 41 1.8273898488003397 39 463 40 510 43 496 46 362 47 328
15124 -2.4077831147039661 2.8411075577176197 2.2045955412423712 155 207 189 0.60898087975265203 31 1770 35 584 36 627 40 717 46 818 45 523 47 578
16001 -2.0779158331077157 3.1772792024685965 1.370268703463108 24 45 25 1.6294579371603457 39 345 40 461 43 451 48 388 38 406
15126 -2.3281072717607438 1.9538122763543235 3.5025335502768815 9 110 34 1.1543746479359687 34 553 36 1088 48 1913
15128 -1.9817367103870343 2.369358797543879 2.4261011466970546 54 114 28 0.21754542789390652 35 713 39 945
15498 -2.9100180897215369 2.1084256327545727 3.4164174067591002 104 203 97 1.5183205812106695 36 2273 39 2863 37 2369 43 2290 40 2453 48 3139 46 539 38 1176
15131 -2.1175941130058575 2.7140803236590574 2.3938781560558731 66 139 39 1.1293298940877656 31 2275 36 2011 37 2382 46 1618 46 2191 45 2118 38 2246
16015 -3.3089939056639106 2.8041530393077916 3.3822509284508624 82 168 102 1.91508896883823 39 832 40 553 43 534 46 526 38 1046
15132 -3.2856815091744953 2.7022150117968335 2.2335132528233985 141 203 162 2.2088977070065496 34 2073 39 2087 46 2641 36 2013
16009 -1.7717836071162747 2.8667645336305219 2.2663528665667201 107 116 85 0.73288750703337158 39 498 40 520 43 510 48 489 46 496 45 621 38 632
15134 -1.4457648828140601 1.4114125333043288 2.4200476333855541 160 136 110 0.33632885138929514 35 2565 36 2419
15136 -2.3505249391486212 1.5481000692344469 1.1316539720902932 249 227 206 1.6905240015117549 34 8 36 9 47 12
15442 -2.7895483282674078 2.555173639228097 2.607663629342885 178 227 199 0.24032043093327116 31 1782 39 2367 48 2580 45 1569 47 2903
15139 -11.210466952120232 13.295407452166881 -9.1230273428597091 94 104 103 0.62602126275687264 35 14 39 9 40 11
15953 -1.7856917542038828 2.6305180554177907 2.3340830950128293 98 100 65 0.30397417653742614 37 65 39 82 45 82
15808 -2.532019259678826 2.3366190991643427 2.9250610751379251 176 223 198 0.84692973486216239 35 2524 37 2287 48 998 43 1255 46 2905 47 883
15142 -3.2697676859058933 4.3092765044892722 4.1019339394147289 0 0 0 2.3598410350631562 35 39 36 23
15823 -2.5383559384991292 2.0564534609979574 3.3311555700756075 2 104 1 0.98975219497685063 33 791 35 749 36 745 37 2381 40 874
15149 -2.4019594800573691 1.7502006425157446 1.3467821890062153 35 89 117 1.3887822292447174 36 87 39 58 40 86 43 85 46 78 45 71
15816 -2.8826537219344885 2.1175640667529003 3.2727364654721067 36 117 40 0.53465040087790172 35 2091 36 2223 37 2350
15150 -2.5688391175197141 2.0557840617520746 1.8433244514021963 183 205 193 0.64009740473976862 35 46 39 60
15151 -0.85801780457869326 3.7721930069930485 3.0853273652574815 2 14 12 1.477565238097539 30 120 28 103 45 77
15522 -2.9928954485828028 2.4576118114549934 2.7336472568090904 114 154 136 0.73629893568580951 36 1698 39 941 26 2926 28 2348 34 2652 35 2606 40 2681 48 1639 46 1616 45 1260 38 1511 47 1435
15155 -1.1676786844794973 2.7521706114115667 2.2881296219333613 19 41 39 0.21743873204914371 31 95 39 83
16033 -2.6007632957001263 2.3362942142571934 3.5456863990139542 1 96 27 1.6318352448669473 39 1069 40 751 43 722 38 767 48 681
15824 -1.9229176116087352 2.2538162607363357 3.0552518404498197 28 107 28 2.2829519614589233 35 2236 36 2301 37 2383 46 2989 38 2055
15158 -2.8374189280975304 3.3883969224114638 3.8618288699004322 16 93 49 0.46916883060991132 36 294 40 84
16047 -2.7741881980744054 2.2908090792347826 3.5627894754269285 18 115 38 1.4685468537765185 39 1064 40 858 43 1130 46 1889 38 993
15164 -1.5452483375433879 3.2540978112921994 1.6210351173898203 0 0 0 0.93638935568399762 35 86 36 98 31 103
15839 -2.0092203260503059 2.29848763924995 1.6201146598648721 136 121 98 1.736094326227559 39 1955 37 2525 40 2936
15165 -2.1629034676512982 1.9328445038029092 1.6933984703881295 153 66 18 2.2790242686496858 36 90 39 132 45 163
16113 -3.3522240936272301 2.7036603916965429 3.5234481546603917 54 151 64 0.71328901439436865 39 2883 40 1410
15174 -10.934426693257238 10.791558148326191 -7.7441122876690658 106 87 71 0.33509067330347991 35 181 36 185 39 154 37 124 40 126
15177 -3.0651441393240013 2.1699355174828461 2.1171216297408479 0 0 0 1.7781046950077535 29 310 33 324
15610 -2.1962376270089403 2.8166061847999719 2.2529458087347418 0 14 0 1.4547700740892646 39 193 37 311 48 190 46 173 45 142 47 254
16127 -2.8422461625872324 2.540283898005792 3.1551178256074337 0 60 0 1.3027287085668731 39 1818 40 1499 46 1067
15180 -3.7178994929881672 2.5223837529134148 2.6137098144956719 51 139 74 0.53135692287927705 36 216 39 191 43 161
16121 -2.632716348902985 1.9967091132774526 3.5558715809530019 42 137 63 1.6149156566873333 39 2424 40 1444 38 2128 47 970
15182 -2.4002095706296571 2.2497746946968085 3.1776107573337846 5 77 13 1.1899411097034482 36 252 39 204 43 178 48 170 46 187 45 136
15554 -2.0932331022322086 2.7818499332664426 3.0876383834575352 160 190 124 1.3732663278100283 36 1318 40 564 43 391 46 3004 45 1786 40 2982 43 2312
16073 -2.2786920797910866 2.5785936512989536 2.1421853223038618 157 141 101 0.57023262847397871 39 1563 40 1029 43 1659 48 839 46 1382 45 1544 38 861
15198 -2.992446842066895 2.1028807315743365 3.2769635371360728 8 80 17 1.7982141621143395 36 388 39 298 37 326 35 363 47 535 31 2307
18067 -3.6799561505095255 3.1626957939231053 1.6717954150949703 169 213 173 0.42074018297777654 45 1061 46 2428 48 2025 47 1917
15506 -1.4358807173483934 2.9503438379912366 1.9833249262835486 196 169 129 2.1153105409375499 36 1993 39 2937 37 651 48 1577
15203 -2.1118745952295392 2.0675132578644004 2.014529629489092 156 117 78 0.86738262667463006 36 357 39 327
16023 -4.0132317231481398 3.2349507270167717 1.5893376637258048 61 101 75 0.34581949766286019 36 1462 40 641 43 1044
15204 -3.5115468518947557 3.1722930035679218 1.6897424171836632 184 211 203 0.41613849852241286 36 342 39 336 37 361 48 282 46 328 38 328
16017 -2.5666430213938223 2.1172508444673817 3.2705660352919148 5 96 7 0.42522935637870862 39 821 40 555 43 758
18149 -2.9648848923948363 2.5601107060005566 2.594324490133721 186 228 206 0.48317893378044796 39 1624 43 2718 47 2826
15210 -2.6127416770004737 2.125759241614483 3.3381794133326022 7 109 10 1.7419102404305293 36 653 39 402 40 561 37 729 43 547 48 3144 45 1787 47 744 45 472
15514 -1.2654580094680434 3.2818811061870528 2.8027566449076802 2 30 25 1.5709282476336881 35 148 36 158 31 170 33 198 39 133 37 148 48 119 45 118
15211 -3.1902059153291962 3.6927175154481677 4.0017068165551883 151 194 178 1.5546959240144291 36 427 39 408
16025 -2.9773803330128361 3.4129128638828035 1.3269031355750687 52 76 41 0.63472717234220255 36 791 40 649 46 754 38 929
17566 -3.1201419422176646 3.2726641195179278 1.5820541921334861 84 122 37 0.84023420942914218 37 1930 45 2292 47 2280
15215 -2.4475243837435445 1.9551428027051123 1.4146810419267069 205 181 153 1.8982150737352099 35 794 39 428 40 337 37 392 43 360 46 208 45 246
15219 -3.4645358130750568 2.7152653308994754 2.3516406502579326 185 213 198 0.37419366047423436 36 530 39 448 37 428 40 446 43 437 48 339 46 378 45 410 38 418
15220 -3.2682999101491657 2.3598685190535127 2.8543030382480015 139 186 166 1.0266286623870138 36 440 39 470 47 364 38 445
15222 -2.7476392268936323 2.4434185970579798 2.7811199782904206 180 220 201 0.40103645140326205 35 443 39 485 40 401 43 406 48 428 46 435 45 446 47 359 44 292
15224 -3.1701479038974165 3.2375195365303773 1.6130314245766637 67 103 38 0.52183168059012064 35 541 39 492 40 600 48 577 46 588 47 413
15226 -2.6789680253749362 2.940943056816629 1.9380557189945911 77 119 97 2.1333151332163509 36 647 39 517 37 427 40 625 48 2217 40 1060 46 2628 46 2629 47 2402
15594 -3.5042296965745923 3.5059304680550718 1.3730291216323993 78 136 106 1.0668527685328237 37 152 40 89 38 111
16111 -2.8179570067517727 1.9665457783718225 3.418234035127671 0 89 3 0.39377634890207142 35 2161 40 1404 38 1179
15228 -2.3564023985149078 2.8610726750078821 2.1924073406710876 17 84 43 1.3622907963638207 36 671 39 554 37 797 40 427 43 427 46 567 45 398 38 355
15379 -3.7317826836016108 3.5277257150701673 1.2493930652641327 113 147 131 1.5480340125177827 36 1813 39 1926 43 1531
15234 -1.6006473767704699 3.091821654306433 2.9027397472760041 45 96 50 1.3552350421278316 39 615 37 478 40 317 43 294 48 229 46 306 45 308 38 239
15238 -0.37752578115723706 3.223139553424422 4.2863161999697104 26 126 175 0.085367112219852131 35 784 39 627
15902 -2.8354614387525792 2.4305267559638071 2.7925107380479122 164 215 184 1.651184937539762 28 2008 30 2481 33 1930 37 1950 22 1040 23 1012 25 799 27 781 26 778 28 651 30 627 32 631 29 657 33 619 34 639 31 630 36 456 31 2195 48 1709 39 2485 46 2288 47 2146 47 2150 46 2289
15241 -2.8954045855727282 3.2803781452873078 1.5497659152780534 36 79 37 0.47843743286883478 36 802 39 683 37 619 35 640 40 663 43 614 48 729 46 745 45 842 38 794 47 790
15387 -3.9753983729150177 2.8201508929036319 2.1569015788416759 168 205 187 0.72065076693740504 35 1926 39 2002 43 1924
15243 -2.576914278025662 2.0478363176659085 3.3563180925144276 150 245 106 0.64159265672766042 35 614 43 748 40 764 46 544 45 473 38 749
15974 -9.2251108676703559 6.9182122131893813 -3.882980904455275 104 78 64 0.30393013645141809 31 280 40 233
15249 -2.1885983949693624 2.7529172605615666 2.3523846816808995 29 106 10 0.79593603709826954 36 692 39 779 37 652 40 814 48 771 46 786 38 677 47 2894
15459 -2.8411115793234658 3.097736829400707 3.793572710066528 42 120 81 1.3745433913422138 35 2318 39 2528
18016 -2.651634393543163 2.2482874682155312 3.1754800571511677 8 101 1 2.414897786512606 43 2209 48 1277 43 1302 47 909
15251 -1.8478698169900969 2.7365776749238004 2.3711654790416858 208 175 138 1.9826101260947993 31 326 39 791 47 185 39 2967
15467 -1.8504927779468965 2.2932355165866967 2.4589129728508672 217 192 163 0.6830119510431244 35 873 39 2589 28 1889 33 921 37 1499 40 2402 36 1759
15258 -3.1865901169361615 2.4254395930353754 2.8006875985950828 186 234 212 1.5005482197929685 36 1681 39 826 37 1130 43 1749 38 2305
15262 -2.8202856559196623 2.5770992037067533 2.5850811452615798 177 225 199 0.41371034714201932 36 859 39 925 37 1121 43 878 48 899 45 1230 38 1262 47 1244
15980 -3.0719200428435069 3.2930006751414735 1.5203890515328573 147 161 100 0.4083329446749448 35 292 40 242 48 236 46 213 45 252 47 216
15263 -2.1754760528799082 2.7253933088997777 2.3021543423376709 0 16 0 0.70704205118137031 36 2441 39 931 40 980 43 678 48 882
